214.0 81.0 19.08
248.0 79.0 4.23
111.78 141.0 44.8
132.0 135.34 43.4
135.0 107.0 27.73
103.0 160.0 13.54
158.0 184.0 31.69
137.74 170.0 60.2
208.66 136.0 43.4
86.2 182.0 39.2
109.0 185.78 65.8
142.0 72.39 28.0
150.0 130.73 18.2
227.0 46.97 9.8
79.0 212.0 42.89
167.0 70.0 14.6
138.0 78.0 34.89
230.31 85.0 14.0
211.4 113.0 22.4
119.0 134.88 30.8
150.0 116.0 14.73
216.0 108.0 39.45
135.0 149.0 45.72
85.0 216.0 50.53
139.0 75.0 19.37
228.0 129.0 13.01
89.0 182.0 56.98
167.91 139.0 57.4
214.55 126.0 30.8
68.0 192.9 39.2
56.0 240.33 19.6
116.05 196.0 51.8
208.0 117.67 35.0
217.0 95.45 32.2
73.0 249.0 22.09
181.0 152.0 27.63
162.0 137.0 29.88
33.0 200.77 16.8
151.0 134.68 54.6
160.39 155.0 25.2
89.67 202.0 51.8
76.66 214.0 54.6
75.0 222.85 50.4
211.48 120.0 26.6
210.0 151.57 30.8
150.0 67.0 19.11
149.62 116.0 8.4
115.0 192.0 58.96
125.34 147.0 57.4
155.0 224.65 22.4
251.33 86.0 16.8
143.0 167.9 5.6
119.0 189.43 53.2
149.71 84.0 21.0
147.5 122.0 35.0
148.0 54.0 26.08
219.0 104.0 39.15
128.0 173.0 15.0
208.0 151.73 29.4
169.0 121.0 55.78
203.0 155.08 32.2
139.77 143.0 26.6
216.0 120.0 20.24
121.0 150.0 33.13
134.0 142.0 11.86
160.9 140.0 21.0
155.0 144.25 18.2
218.0 62.33 9.8
208.5 99.0 30.8
162.0 117.0 64.81
234.0 111.0 27.66
131.69 172.0 42.0
215.0 160.48 12.6
83.0 83.94 12.6
169.0 51.04 30.8
144.0 157.67 21.0
139.68 124.0 36.4
114.0 193.0 48.38
179.0 111.91 49.0
213.0 148.14 22.4
96.47 205.0 42.0
99.0 169.28 47.6
242.0 87.0 24.0
182.0 139.2 28.0
53.0 210.45 29.4
236.0 127.0 16.55
209.0 133.52 37.8
49.0 234.66 29.4
157.0 152.0 59.81
129.0 188.63 50.4
110.9 142.0 54.6
138.0 137.0 68.18
220.0 128.0 39.42
139.0 182.38 36.4
153.13 161.0 39.2
66.0 230.0 37.32
136.08 125.0 37.8
175.0 59.0 13.33
141.7 163.0 7.0
160.0 159.0 38.27
217.0 50.0 19.37
232.25 103.0 12.6
168.33 129.0 49.0
240.0 92.0 6.04
39.0 213.0 27.92
111.0 144.0 41.95
100.0 134.0 30.84
171.08 45.0 15.4
148.67 151.0 19.6
51.33 213.0 39.2
135.29 83.0 50.4
57.0 219.07 25.2
95.0 199.74 58.8
171.22 71.0 26.6
91.18 193.0 39.2
94.0 180.44 61.6
110.0 191.0 59.64
113.0 195.0 45.81
150.0 71.0 14.28
40.0 244.0 15.63
92.0 159.0 25.06
185.0 66.84 22.4
194.0 145.44 42.0
210.0 136.36 33.6
158.26 73.0 40.6
51.5 257.0 11.2
89.0 88.0 13.93
179.0 44.0 6.34
59.22 200.0 42.0
141.0 165.0 15.89
224.0 128.0 29.89
159.1 153.0 22.4
73.0 205.0 59.72
107.0 179.0 61.4
76.0 190.77 44.8
146.0 165.79 23.8
171.0 42.0 19.98
114.88 199.0 39.2
121.57 177.0 61.6
156.0 157.0 55.42
210.0 139.33 26.6
140.0 135.0 20.32
90.41 163.0 44.8
212.0 106.71 32.2
184.0 63.0 17.12
124.0 184.67 19.6
115.78 170.0 58.8
40.0 235.0 30.8
139.95 177.0 32.2
166.0 141.0 15.23
61.0 222.0 23.1
107.91 155.0 49.0
170.67 156.0 25.2
237.0 114.0 10.67
217.0 95.25 15.4
137.0 150.0 42.95
239.0 88.0 13.54
15.85 206.0 5.6
100.13 194.0 32.2
48.0 241.53 21.0
153.0 128.0 7.43
107.0 197.8 40.6
17.0 208.0 4.0
119.0 163.67 28.0
123.0 183.0 23.14
213.0 45.91 11.2
139.0 83.0 19.0
212.0 153.03 26.6
210.0 113.0 18.81
211.0 149.0 18.65
120.33 164.0 26.6
162.0 65.0 15.7
145.0 120.46 57.4
169.0 126.0 20.91
48.0 217.0 34.4
56.0 221.0 39.72
206.0 132.57 37.8
144.0 131.0 12.16
67.0 224.0 50.93
117.0 171.0 49.92
104.83 165.0 67.2
125.0 177.0 36.86
155.0 71.03 19.6
125.92 187.0 49.0
214.93 131.0 35.0
167.0 131.0 39.94
140.25 75.0 26.6
80.0 218.0 50.95
136.66 139.0 12.6
200.0 136.15 30.8
143.0 168.0 60.6
189.64 55.0 16.8
92.0 69.23 5.6
114.0 199.55 37.8
227.0 137.0 17.5
199.0 33.0 16.96
101.0 137.17 29.4
162.0 150.3 30.8
212.0 92.0 26.67
110.0 199.0 39.42
131.0 106.0 21.4
113.67 185.0 49.0
146.0 131.0 15.02
231.67 126.0 19.6
102.0 150.69 44.8
147.0 81.0 23.42
247.0 74.0 15.13
218.0 80.5 29.4
171.0 62.0 27.54
135.0 144.0 69.83
117.36 160.0 23.8
237.89 114.0 11.2
153.0 58.0 35.56
107.33 151.0 7.0
130.0 166.82 70.0
227.72 82.0 12.6
140.4 109.0 29.4
99.0 129.0 21.47
125.0 186.0 9.06
138.0 172.33 30.8
49.0 219.31 36.4
108.96 101.0 30.8
133.17 80.0 36.4
215.0 83.0 17.31
145.0 172.0 54.82
137.0 151.0 16.69
156.0 66.74 16.8
170.0 132.0 28.43
91.0 187.0 33.15
100.32 170.0 39.2
232.5 133.0 28.0
244.71 96.0 18.2
169.12 135.0 51.8
122.0 176.67 58.8
129.0 141.0 65.55
146.0 86.0 22.34
193.0 56.0 28.88
81.0 178.69 36.4
137.0 127.0 52.76
154.0 158.77 33.6
95.89 181.0 29.4
161.0 150.72 8.4
100.0 135.0 20.89
164.0 129.43 22.4
221.0 88.0 27.78
162.71 153.0 43.4
152.0 163.0 47.67
172.0 126.0 43.53
131.0 196.0 19.6
167.0 139.0 33.31
65.0 190.14 32.2
39.0 209.19 25.2
219.0 111.0 9.19
60.0 237.0 24.97
30.14 232.0 9.8
129.0 152.0 56.48
140.0 96.73 42.0
84.0 175.0 49.84
141.0 167.0 59.35
159.0 69.0 38.29
194.0 32.0 12.02
233.0 80.0 2.7
217.0 44.0 6.44
234.0 100.0 10.91
219.36 162.0 11.2
143.38 147.0 8.4
132.0 162.0 67.0
158.0 133.0 11.24
146.08 166.0 53.2
141.0 122.0 14.97
123.0 156.3 21.0
231.0 56.0 11.3
102.0 170.0 21.35
129.0 163.31 21.0
211.38 86.0 30.8
148.0 145.0 65.42
235.0 75.0 3.06
175.0 111.0 22.68
156.0 144.0 14.92
238.0 121.6 23.8
185.32 59.0 12.6
28.9 204.0 16.8
109.0 150.7 22.4
229.0 104.36 26.6
164.48 122.0 49.0
170.0 149.0 11.67
229.0 34.6 9.8
149.0 158.75 16.8
79.68 135.0 30.8
134.0 173.0 8.87
178.0 124.47 57.4
111.0 190.5 18.2
41.4 248.0 22.4
51.0 237.29 28.0
145.0 119.25 26.6
205.0 153.97 35.0
142.0 98.4 40.6
118.0 152.34 40.6
62.0 220.91 43.4
218.27 99.0 29.4
16.0 209.0 9.33
147.0 132.0 27.06
16.0 217.0 8.56
102.0 166.0 29.87
139.36 89.0 22.4
65.0 217.0 35.48
135.0 72.0 19.0
217.06 136.0 30.8
178.0 126.0 50.02
218.76 105.0 12.6
193.0 189.33 16.8
104.0 148.09 25.2
205.0 148.0 23.62
72.0 191.0 47.95
51.0 209.0 37.62
129.06 129.0 32.2
148.0 69.9 30.8
120.0 184.0 50.05
205.0 29.0 5.32
134.0 101.0 39.26
189.0 134.96 33.6
207.0 23.0 7.0
103.0 182.0 20.18
161.0 69.28 16.8
98.0 164.82 12.6
203.0 149.47 32.2
191.0 47.0 11.66
148.0 150.33 29.4
174.48 119.0 54.6
159.0 149.0 42.45
154.0 165.86 29.4
106.33 159.0 65.8
159.86 47.0 12.6
83.0 177.95 44.8
37.0 219.0 16.64
12.28 261.0 16.8
207.0 49.0 25.48
212.0 141.0 46.07
105.0 154.08 44.8
79.0 216.65 47.6
142.0 136.0 24.27
81.0 207.45 33.6
151.0 93.35 32.2
143.0 120.34 11.2
66.0 119.25 29.4
210.0 134.0 39.54
118.0 151.0 60.17
115.0 150.0 49.48
113.0 155.0 38.27
139.67 97.0 36.4
100.0 123.0 32.42
90.0 87.83 21.0
98.0 192.0 59.72
63.29 235.0 23.8
89.0 218.18 44.8
69.22 232.0 35.0
113.5 190.0 46.2
133.34 162.0 21.0
57.0 213.64 35.0
127.0 141.31 42.0
168.0 67.0 36.19
172.0 54.0 34.25
246.0 101.0 20.68
132.77 184.0 54.6
103.0 163.0 65.1
169.0 150.0 18.05
106.0 192.0 42.49
100.0 189.0 38.23
111.0 164.0 10.94
139.0 85.36 51.8
54.0 240.44 19.6
137.88 62.0 26.6
84.48 77.0 8.4
158.12 118.0 58.8
237.0 109.0 10.19
214.0 102.0 14.2
136.22 152.0 25.2
131.0 187.88 46.2
129.0 175.33 25.2
95.8 74.0 14.0
241.0 110.0 27.88
136.13 145.0 12.6
108.0 173.0 65.71
90.0 159.0 24.27
197.86 47.0 14.0
206.0 134.32 42.0
167.0 142.0 27.26
221.0 107.0 7.39
141.0 88.67 28.0
67.0 195.41 53.2
124.0 190.0 51.42
141.0 86.0 37.34
106.79 126.0 21.0
163.6 226.0 18.2
163.0 127.63 26.6
130.0 126.83 39.2
171.0 134.0 47.97
181.0 150.0 27.62
186.0 136.79 15.4
203.0 27.0 4.86
96.06 189.0 33.6
96.0 204.33 35.0
111.47 106.0 32.2
137.65 168.0 36.4
178.0 57.0 6.57
218.0 118.67 35.0
237.0 76.0 2.21
115.0 184.0 42.93
186.0 38.0 16.68
104.0 190.97 36.4
218.0 30.0 3.22
60.0 102.0 9.41
201.0 151.73 29.4
234.0 64.0 2.88
194.71 149.0 35.0
155.0 157.0 38.07
101.0 119.0 23.59
157.0 156.0 22.62
64.44 198.0 39.2
149.0 137.0 38.21
234.0 125.65 21.0
162.0 64.0 33.74
233.0 127.0 14.65
218.0 95.42 32.2
125.0 173.0 63.63
64.0 116.0 26.37
223.0 90.09 11.2
217.92 58.0 19.6
121.0 144.0 4.4
99.0 119.08 25.2
214.33 63.0 15.4
107.25 129.0 26.6
139.15 60.0 26.6
138.11 84.0 50.4
173.0 148.0 19.45
203.0 36.0 14.19
67.0 210.0 35.28
193.04 148.0 39.2
221.0 146.0 29.96
159.0 56.0 9.19
107.0 153.0 35.49
175.0 71.14 21.0
133.0 170.0 22.87
124.32 148.0 32.2
121.56 139.0 29.4
146.33 142.0 22.4
103.0 146.28 44.8
120.0 172.0 69.5
112.3 167.0 50.4
148.0 172.0 14.31
100.0 96.0 32.8
133.0 153.0 15.69
88.0 208.28 61.6
115.65 141.0 23.8
149.0 141.0 36.9
154.0 127.0 68.52
113.0 161.0 56.94
189.0 212.29 12.6
105.75 99.0 33.6
75.0 219.26 37.8
173.47 141.0 16.8
116.0 166.0 17.38
129.26 98.0 33.6
168.0 66.78 21.0
138.0 141.0 32.59
140.04 64.0 33.6
144.0 71.67 39.2
213.0 83.0 30.42
80.0 219.0 53.77
134.0 172.85 51.8
93.0 173.0 14.57
93.82 162.0 43.4
210.0 128.18 35.0
235.0 74.34 16.8
225.0 88.15 9.8
144.0 143.96 8.4
156.0 162.62 46.2
110.0 163.0 59.24
165.0 56.0 12.98
203.0 147.73 33.6
212.0 164.09 25.2
202.0 45.0 15.81
162.0 111.0 48.8
137.0 153.15 16.8
58.0 251.5 19.6
215.67 69.0 22.4
108.0 170.0 14.9
115.0 189.33 23.8
187.0 163.0 35.47
52.3 218.0 40.6
66.0 205.0 41.09
113.0 161.0 66.18
143.0 99.7 39.2
123.0 150.0 2.32
143.4 122.0 29.4
205.67 163.0 22.4
63.0 249.0 26.71
91.0 184.0 36.19
209.0 36.0 15.87
218.0 144.0 37.18
179.0 65.22 19.6
58.2 255.0 11.2
171.82 118.0 56.0
119.0 156.64 9.8
143.52 160.0 12.6
100.0 170.0 51.38
20.0 203.0 11.57
208.0 137.0 46.11
156.25 151.0 39.2
221.0 143.76 22.4
100.08 142.0 16.8
114.0 192.0 59.6
118.0 196.8 25.2
173.0 111.0 55.55
131.55 80.0 22.4
180.0 56.0 23.43
236.0 90.3 16.8
157.0 70.0 36.87
200.0 28.21 14.0
98.0 137.0 23.46
116.12 178.0 18.2
176.0 45.43 30.8
157.0 145.0 36.85
196.0 54.0 20.07
150.0 115.77 54.6
95.0 189.0 62.63
156.18 141.0 15.4
100.0 168.8 60.2
145.0 167.73 15.4
142.0 95.0 35.94
216.0 150.38 22.4
244.0 105.0 15.94
136.0 147.0 47.15
159.0 151.0 32.12
173.56 108.0 50.4
229.0 75.0 4.71
80.0 182.0 54.36
105.0 193.73 39.2
231.0 56.6 5.6
120.0 160.68 61.6
151.0 71.08 32.2
184.0 147.0 14.25
80.0 207.66 43.4
234.0 85.0 21.81
139.0 173.0 40.2
126.0 130.07 32.2
163.0 226.75 12.6
79.0 189.0 63.09
96.73 215.0 35.0
81.0 175.64 39.2
141.0 102.69 30.8
126.32 184.0 33.6
229.0 124.65 32.2
191.27 147.0 19.6
149.0 121.0 27.53
214.04 132.0 19.6
206.0 44.0 17.5
125.0 171.56 16.8
153.0 156.0 47.13
228.0 130.0 35.23
81.0 83.0 4.82
129.0 171.0 59.77
78.42 184.0 46.2
110.0 194.0 59.63
152.65 145.0 25.2
169.17 74.0 36.4
144.0 93.0 37.57
228.0 92.0 18.65
38.0 229.0 24.8
155.0 164.68 29.4
130.0 135.31 19.6
174.31 47.0 7.0
149.0 135.0 66.37
151.0 76.89 40.6
110.0 163.0 10.61
117.0 176.0 12.54
223.78 133.0 40.6
115.0 141.15 57.4
86.0 184.0 64.27
98.25 107.0 28.0
231.0 115.33 30.8
135.0 99.0 27.0
97.0 159.0 27.37
114.0 189.0 59.54
231.0 129.0 20.05
55.82 243.0 19.6
201.0 45.0 17.72
70.1 214.0 28.0
59.0 220.0 39.36
158.24 122.0 30.8
119.0 179.0 47.36
107.0 157.24 47.6
224.5 115.0 8.4
122.74 181.0 36.4
165.0 126.12 32.2
187.0 142.0 64.34
139.0 114.0 23.48
174.76 131.0 53.2
226.0 94.22 16.8
142.0 167.0 4.97
141.37 70.0 18.2
167.0 72.0 19.13
63.0 207.45 36.4
101.13 190.0 68.6
191.67 63.0 23.8
186.42 134.0 63.0
104.0 192.0 57.02
86.0 215.8 37.8
209.71 135.0 42.0
128.0 184.05 54.6
214.3 139.0 43.4
213.88 149.0 37.8
110.04 142.0 21.0
221.25 49.0 22.4
86.0 181.57 37.8
67.0 237.24 23.8
213.27 108.0 33.6
89.83 181.0 64.4
100.0 197.0 63.8
190.0 39.26 18.2
160.0 122.65 36.4
169.33 99.0 49.0
63.0 192.0 27.22
107.0 166.41 18.2
84.0 79.0 14.53
123.0 143.8 9.8
97.0 168.86 50.4
210.0 79.0 18.61
191.0 208.4 14.0
140.31 156.0 12.6
108.0 174.15 25.2
107.0 160.72 54.6
222.0 86.3 25.2
78.0 181.28 44.8
151.78 221.0 26.6
60.88 258.0 9.8
113.66 164.0 22.4
29.0 213.69 18.2
171.0 70.0 15.4
52.23 242.0 19.6
168.0 74.08 28.0
165.0 105.67 21.0
134.0 124.0 39.39
111.23 162.0 11.2
134.0 127.0 33.85
202.0 147.0 20.78
123.0 172.3 19.6
182.61 66.0 15.4
236.0 79.0 23.0
138.62 72.0 18.2
195.0 145.0 31.29
152.0 55.0 31.16
116.0 168.65 65.8
95.0 81.0 15.12
168.0 147.31 36.4
140.0 185.27 18.2
145.7 146.0 23.8
215.0 94.0 28.05
223.0 136.67 18.2
73.8 190.0 50.4
130.0 186.0 38.27
101.0 159.7 28.0
185.0 141.0 33.21
116.0 142.15 54.6
167.0 63.25 8.4
122.0 164.0 27.08
150.56 162.0 28.0
63.0 201.77 53.2
150.0 52.54 25.2
189.0 63.25 23.8
139.0 167.27 37.8
110.71 157.0 39.2
99.0 162.0 57.87
168.0 124.0 40.74
150.0 56.0 31.38
106.0 171.0 22.89
205.0 49.0 24.5
148.0 125.33 40.6
134.0 78.0 22.01
245.0 79.0 3.56
174.3 144.0 15.4
139.67 145.0 8.4
30.1 230.0 12.6
233.0 119.0 36.27
69.0 263.0 12.6
111.0 106.0 36.01
153.0 144.3 32.2
136.0 74.18 36.4
214.0 90.0 28.04
210.74 106.0 21.0
139.0 136.0 26.62
119.0 196.0 18.87
142.0 198.0 21.84
109.18 200.0 54.6
134.46 121.0 35.0
70.0 195.95 33.6
218.25 130.0 25.2
59.0 223.0 28.9
67.0 255.0 15.68
151.0 126.0 31.93
116.0 134.67 28.0
152.0 153.0 33.02
192.0 26.75 11.2
51.0 212.46 40.6
216.83 55.0 14.0
157.0 70.16 18.2
118.0 152.0 58.32
99.0 129.0 27.98
153.13 54.0 12.6
106.0 160.71 51.8
170.64 137.0 44.8
143.58 168.0 18.2
231.0 116.0 27.05
150.34 144.0 53.2
241.0 75.0 5.28
204.0 136.0 44.11
134.48 125.0 8.4
135.27 114.0 14.0
229.7 100.0 26.6
242.76 117.0 18.2
97.0 164.78 19.6
63.0 258.0 9.51
180.0 149.0 26.2
134.62 78.0 36.4
65.34 219.0 36.4
199.0 47.0 14.39
238.0 93.34 8.4
126.07 134.0 22.4
148.25 96.0 33.6
231.71 103.0 23.8
191.22 50.0 22.4
92.0 200.0 39.68
109.19 101.0 33.6
151.0 157.88 53.2
96.25 205.0 43.4
169.0 145.33 37.8
147.0 78.66 30.8
242.0 102.5 23.8
144.35 77.0 28.0
224.0 99.0 9.29
168.79 138.0 28.0
109.0 162.0 69.67
62.0 252.0 15.05
225.66 115.0 26.6
96.65 161.0 30.8
178.0 164.14 33.6
64.0 108.0 21.32
138.0 130.32 7.0
140.0 154.0 20.01
160.0 141.0 10.83
248.0 97.0 19.32
148.0 130.0 64.16
183.0 38.0 9.18
95.0 178.0 60.63
189.66 150.0 26.6
151.0 169.0 19.31
181.17 32.0 11.2
124.0 171.0 23.8
151.0 140.0 45.71
165.0 181.0 31.15
129.0 150.63 28.0
91.0 185.68 39.2
135.0 172.73 28.0
120.22 188.0 33.6
111.0 127.0 31.02
70.0 237.0 35.06
103.0 182.0 27.26
199.33 61.0 25.2
142.0 145.0 24.83
68.3 199.0 54.6
50.0 242.32 16.8
185.53 142.0 14.0
57.0 96.0 10.02
170.89 126.0 21.0
191.0 134.4 32.2
146.0 134.0 24.74
165.77 130.0 22.4
118.0 198.0 25.48
169.0 104.0 47.04
145.0 136.0 45.74
88.0 182.7 32.2
124.0 169.0 27.03
214.0 77.0 28.06
178.0 43.0 26.13
150.66 156.0 51.8
113.0 173.0 27.06
172.0 54.2 28.0
139.0 104.36 32.2
62.0 238.0 21.47
142.0 148.69 36.4
125.0 155.5 67.2
108.3 132.0 28.0
211.0 127.0 27.38
134.0 142.67 56.0
90.0 190.0 62.5
61.0 200.85 36.4
142.86 172.0 37.8
182.33 64.0 25.2
132.54 175.0 33.6
161.0 70.0 18.9
26.0 209.0 9.33
152.61 151.0 30.8
236.0 120.0 20.08
115.14 190.0 28.0
136.0 114.0 12.96
104.0 173.93 26.6
142.73 161.0 50.4
195.0 143.0 21.23
138.0 121.0 49.7
165.0 140.0 10.72
107.38 127.0 19.6
96.59 113.0 28.0
192.26 135.0 23.8
118.0 160.76 12.6
120.0 152.57 68.6
200.0 49.68 15.4
48.0 251.0 17.15
214.0 148.26 22.4
210.0 147.0 18.84
119.73 145.0 18.2
90.0 185.0 66.75
155.0 203.0 28.47
253.0 87.0 8.27
96.0 200.71 58.8
133.0 163.7 23.8
139.0 126.35 53.2
163.0 141.0 61.6
203.0 145.66 26.6
245.0 100.0 11.71
125.0 153.0 20.06
225.0 51.0 10.28
138.0 88.0 26.13
52.0 230.0 28.45
127.0 178.65 53.2
99.0 192.25 68.6
222.66 90.0 26.6
127.51 191.0 42.0
227.0 96.0 26.15
52.0 239.0 35.0
98.0 159.0 57.75
105.0 163.0 21.93
80.0 214.63 49.0
126.0 176.0 14.85
106.07 150.0 58.8
147.0 118.57 56.0
169.0 167.38 28.0
148.59 107.0 16.8
98.0 172.22 15.4
91.0 189.34 63.0
247.0 69.0 10.34
187.0 44.0 13.08
176.0 71.0 21.98
126.0 190.86 49.0
95.0 115.75 28.0
130.0 187.0 17.4
169.0 149.82 21.0
136.77 91.0 39.2
146.0 157.66 42.0
75.18 259.0 18.2
143.0 105.33 32.2
220.0 98.66 12.6
62.94 192.0 36.4
123.0 149.0 19.2
116.0 150.32 49.0
101.26 169.0 61.6
121.58 185.0 14.0
182.0 63.0 13.72
88.67 99.0 21.0
100.0 137.0 29.23
110.0 160.26 14.0
185.7 53.0 16.8
185.0 122.77 54.6
103.0 178.15 67.2
149.0 130.0 6.14
99.75 190.0 23.8
172.0 65.0 15.34
186.0 38.13 16.8
89.0 159.0 16.41
213.45 49.0 16.8
162.25 127.0 68.6
171.0 63.0 32.45
173.0 119.57 26.6
218.0 50.0 19.37
133.83 191.0 15.4
183.0 46.0 13.08
129.0 154.34 53.2
112.0 152.0 52.44
124.0 169.61 22.4
119.0 141.0 17.55
67.38 215.0 54.6
249.0 77.17 11.2
103.5 170.0 16.8
133.0 139.0 21.49
117.0 185.69 29.4
59.0 246.0 29.71
118.35 152.0 58.8
160.95 140.0 64.4
75.46 182.0 40.6
109.0 150.58 8.4
113.89 181.0 23.8
142.0 99.0 18.89
195.0 146.49 36.4
224.46 157.0 18.2
146.65 152.0 67.2
213.68 103.0 33.6
64.0 222.6 51.8
211.66 97.0 28.0
165.0 143.65 8.4
136.0 179.0 58.05
144.0 185.0 16.61
175.0 66.65 12.6
72.32 202.0 43.4
158.0 69.76 19.6
220.0 50.0 15.75
41.0 239.0 21.7
106.0 157.8 15.4
235.0 99.0 32.2
181.0 60.0 10.05
159.06 128.0 29.4
184.0 146.0 15.83
176.0 67.38 23.8
126.0 187.97 56.0
17.0 206.0 6.59
209.0 121.4 33.6
156.0 138.0 34.07
232.0 89.0 31.08
122.0 135.85 25.2
152.83 136.0 15.4
239.0 94.66 14.0
142.44 116.0 7.0
92.0 185.0 33.05
147.0 125.12 64.4
79.0 229.45 37.8
163.0 69.0 19.93
77.0 228.0 42.53
211.71 88.0 23.8
208.0 105.75 26.6
160.38 116.0 40.6
216.0 132.0 25.09
63.0 110.5 15.4
198.0 143.0 39.12
226.0 118.0 36.76
211.35 106.0 25.2
179.0 47.31 18.2
245.0 87.0 17.64
146.0 141.54 16.8
198.32 142.0 26.6
130.33 136.0 29.4
110.62 106.0 36.4
129.0 162.0 24.26
125.66 175.0 16.8
158.65 226.0 15.4
130.68 128.0 23.8
154.0 146.0 19.18
118.0 193.0 44.33
169.56 144.0 37.8
74.29 207.0 40.6
125.0 127.63 30.8
192.0 55.0 20.06
151.68 147.0 36.4
230.35 79.0 7.0
196.0 31.0 13.53
120.0 144.0 11.84
127.33 191.0 19.6
158.7 152.0 11.2
225.0 103.0 5.99
161.0 145.0 5.51
106.0 177.0 59.89
166.0 68.0 16.39
82.0 189.0 30.97
134.34 134.0 58.8
112.3 165.0 51.8
133.24 110.0 21.0
51.33 251.0 19.6
144.3 152.0 14.0
163.67 138.0 37.8
195.0 136.0 33.26
169.0 54.0 7.0
218.57 116.0 15.4
112.0 155.34 54.6
133.0 130.0 24.72
13.32 208.0 4.2
182.29 62.0 28.0
58.0 245.83 29.4
103.0 167.26 43.4
58.0 221.0 29.4
107.0 159.32 44.8
195.0 52.0 22.82
103.86 196.0 43.4
230.0 132.0 28.92
156.72 137.0 28.0
167.0 46.0 17.36
220.0 135.0 15.73
139.0 163.0 60.13
58.0 221.68 43.4
144.0 121.0 16.68
108.0 176.0 45.26
115.0 167.34 19.6
109.0 150.0 28.96
121.56 185.0 15.4
75.14 183.0 47.6
216.0 115.0 11.39
185.81 123.0 56.0
211.0 145.77 36.4
148.5 121.0 18.2
247.85 73.0 8.4
44.0 210.0 19.44
144.0 120.33 36.4
160.0 144.0 12.12
247.0 83.0 19.15
208.0 44.0 18.48
151.0 63.0 31.39
137.0 67.2 29.4
121.0 140.71 26.6
145.0 71.0 44.54
170.0 46.0 11.72
130.0 142.0 14.66
138.0 141.0 6.31
139.0 128.0 14.85
137.0 91.0 39.45
159.0 159.95 42.0
192.0 61.0 24.88
126.0 179.64 49.0
141.33 167.0 30.8
130.0 123.94 39.2
127.0 155.0 16.01
141.68 113.0 18.2
125.0 131.96 28.0
136.0 141.0 34.06
78.0 195.43 40.6
136.26 161.0 2.8
90.0 159.0 27.04
97.0 171.05 29.4
189.84 65.0 28.0
198.0 150.0 27.42
164.72 143.0 50.4
192.0 189.69 23.8
176.17 209.0 18.2
166.0 137.36 5.6
114.0 188.0 48.01
228.0 68.0 14.79
153.21 124.0 22.4
84.0 196.0 39.31
154.0 125.0 19.05
140.0 74.86 21.0
78.23 146.0 26.6
83.0 197.0 36.05
223.0 127.0 24.27
141.0 106.15 29.4
176.0 184.0 36.59
157.0 131.0 43.86
113.0 151.28 11.2
75.0 191.0 46.61
227.0 128.0 40.54
158.0 131.0 32.63
146.0 132.67 29.4
211.67 142.0 36.4
135.0 177.39 21.0
79.0 146.0 29.75
147.94 136.0 11.2
139.0 209.11 30.8
12.0 260.68 65.8
114.0 178.0 41.57
166.0 180.0 30.8
84.77 200.0 46.2
64.0 221.63 39.2
177.0 142.71 12.6
215.0 122.0 22.97
213.42 117.0 25.2
168.0 168.0 26.93
96.0 210.0 41.51
215.0 97.0 33.99
215.0 83.11 23.8
227.0 115.34 25.2
126.5 155.0 11.2
190.0 208.0 13.6
179.57 110.0 19.6
160.0 150.0 31.73
51.0 214.0 30.01
85.72 175.0 36.4
148.0 53.5 25.2
122.0 178.0 66.11
212.0 159.81 19.6
160.0 117.0 44.8
131.45 161.0 18.2
134.74 153.0 18.2
167.0 152.0 11.66
133.0 166.74 32.2
158.67 205.0 30.8
157.44 75.0 36.4
216.0 81.0 14.47
97.0 109.0 26.17
218.9 57.0 21.0
140.0 141.3 49.0
229.0 60.0 14.31
127.0 130.0 43.12
143.33 102.0 32.2
89.0 207.61 58.8
98.14 135.0 28.0
121.0 169.0 22.83
138.0 84.0 39.8
105.0 188.0 27.17
125.31 141.0 46.2
226.0 85.0 17.91
145.0 63.0 28.22
222.65 143.0 23.8
177.0 148.25 23.8
100.0 173.35 35.0
47.78 219.0 19.6
235.0 90.0 23.32
182.0 143.0 33.97
166.0 61.0 31.72
94.0 108.53 21.0
241.0 91.0 22.0
227.02 88.0 23.8
142.0 66.32 26.6
77.0 184.9 50.4
78.0 215.62 54.6
99.65 198.0 54.6
48.0 241.0 29.4
125.0 152.0 63.98
232.2 133.0 29.4
171.4 140.0 46.2
135.0 172.54 40.6
139.34 164.0 22.4
233.0 95.0 33.32
212.0 128.0 24.08
109.0 194.0 60.09
134.0 127.0 39.2
106.68 169.0 51.8
161.0 135.73 22.4
133.0 121.0 11.29
154.04 114.0 16.8
179.0 63.0 14.91
149.68 78.0 40.6
48.0 242.67 28.0
208.12 101.0 22.4
208.0 144.0 39.71
95.0 169.29 23.8
111.0 105.0 32.03
137.26 84.0 33.6
53.0 228.0 43.3
220.0 75.0 16.08
110.0 186.06 63.0
98.0 156.0 27.34
244.0 110.0 13.72
109.0 188.0 54.11
230.0 140.0 22.93
134.0 178.38 21.0
214.0 64.0 21.0
146.63 125.0 16.8
26.0 233.38 8.4
134.4 130.0 40.6
213.0 158.5 21.0
123.0 134.0 48.77
174.0 38.0 8.12
141.29 112.0 26.6
173.0 156.0 27.47
114.0 187.15 49.0
153.0 144.0 8.68
99.72 182.0 36.4
146.0 147.0 65.49
178.0 52.0 14.5
144.0 158.15 15.4
138.0 71.0 15.75
77.0 200.0 64.14
109.69 191.0 44.8
134.0 159.0 67.01
113.0 158.0 15.19
101.19 120.0 32.2
248.0 96.0 17.08
219.35 115.0 32.2
65.0 114.0 19.01
112.8 170.0 63.0
177.0 67.0 18.99
200.5 33.0 14.0
155.0 118.0 37.8
178.0 65.0 24.22
95.95 171.0 28.0
135.0 125.94 26.6
135.5 165.0 12.6
157.0 223.0 22.4
236.67 80.0 8.4
48.29 221.0 37.8
133.0 175.07 30.8
164.69 142.0 51.8
182.0 47.0 5.34
187.65 53.0 21.0
139.0 157.0 3.5
172.0 137.18 8.4
252.0 82.0 6.82
28.29 214.0 18.2
161.0 132.0 28.97
137.0 68.0 21.12
148.0 117.48 44.8
150.25 152.0 7.0
97.0 168.62 22.4
142.0 109.22 29.4
242.0 63.0 8.96
214.0 77.0 20.44
205.0 43.0 19.37
40.0 246.0 14.84
143.0 138.0 7.97
128.4 88.0 35.0
164.0 230.0 12.25
217.0 59.03 16.8
200.45 147.0 22.4
99.0 171.0 15.93
77.0 138.0 26.73
60.31 208.0 42.0
108.3 110.0 30.8
208.17 118.0 36.4
140.07 147.0 9.8
165.0 134.47 22.4
150.35 138.0 32.2
132.0 168.65 42.0
171.21 182.0 35.0
130.0 96.5 36.4
226.0 120.0 15.77
120.0 168.0 21.37
111.5 152.0 7.0
180.0 147.0 11.4
99.0 150.3 42.0
151.0 67.73 18.2
99.0 125.8 22.4
225.65 119.0 32.2
70.45 191.0 42.0
217.0 116.0 16.21
132.0 103.0 30.52
41.0 246.0 23.1
155.66 158.0 21.0
168.0 66.0 19.95
164.0 130.0 36.4
149.53 171.0 43.4
194.0 53.15 22.4
145.0 107.0 12.75
154.86 114.0 56.0
175.75 129.0 47.6
72.0 210.0 63.16
116.0 188.14 36.4
159.18 139.0 4.2
60.0 259.0 19.22
118.21 135.0 22.4
92.97 164.0 46.2
131.52 133.0 61.6
198.75 57.0 28.0
53.0 241.0 33.6
154.7 147.0 4.2
210.31 90.0 21.0
220.0 54.28 16.8
150.0 156.0 14.41
196.0 63.33 28.0
218.0 72.64 19.6
133.0 106.0 39.71
239.8 84.0 23.8
195.0 169.0 33.6
85.0 214.0 56.37
168.0 123.0 41.58
135.32 164.0 22.4
103.0 96.0 24.97
78.0 204.66 63.0
73.0 253.7 18.2
123.0 180.0 11.68
206.0 164.38 22.4
166.0 114.0 49.7
246.0 91.0 11.43
164.0 226.58 14.0
200.0 193.0 18.9
106.0 192.71 53.2
106.0 101.19 28.0
36.0 216.0 13.85
112.0 192.0 41.3
219.0 128.0 18.56
144.5 120.0 25.2
121.0 185.0 43.64
133.0 133.37 30.8
208.0 139.0 16.2
217.07 68.0 18.2
164.19 112.0 21.0
132.0 74.55 29.4
218.0 139.64 16.8
117.0 189.0 59.34
145.0 102.0 32.08
145.0 107.15 29.4
139.2 129.0 5.6
83.31 192.0 49.0
125.0 156.0 63.93
245.38 85.0 18.2
210.0 142.0 37.29
82.17 149.0 22.4
243.0 93.0 6.32
108.0 121.0 33.04
125.35 169.0 60.2
109.12 186.0 32.2
141.0 102.21 35.0
222.0 129.0 43.0
143.0 172.61 50.4
161.0 136.0 22.98
137.0 92.0 43.56
224.73 78.0 16.8
193.0 65.16 22.4
207.0 166.12 23.8
143.0 57.79 28.0
243.43 56.0 7.0
171.66 149.0 12.6
210.28 74.0 21.0
133.0 163.25 70.0
148.0 118.0 37.31
110.0 168.59 63.0
142.84 149.0 8.4
47.95 210.0 35.0
114.56 192.0 50.4
157.0 152.76 49.0
49.53 207.0 21.0
155.0 133.67 70.0
131.64 188.0 42.0
141.27 138.0 7.0
161.0 73.56 21.0
178.0 68.19 25.2
116.25 153.0 58.8
158.0 112.0 45.47
100.0 82.0 28.62
137.0 152.0 68.71
188.0 154.0 23.08
149.0 182.02 26.6
67.0 222.7 39.2
113.67 173.0 44.8
142.71 139.0 30.8
152.0 153.0 59.88
251.0 76.0 14.0
144.0 173.0 55.19
161.09 154.0 37.8
148.0 157.66 51.8
88.0 158.0 25.84
89.0 172.52 43.4
162.0 199.09 26.6
164.35 53.0 21.0
181.0 28.0 12.6
249.84 86.0 12.6
107.34 143.0 35.0
130.0 148.0 69.71
65.35 205.0 51.8
143.0 103.0 39.85
200.0 144.0 39.57
160.0 59.0 27.57
151.0 139.77 8.4
159.86 157.0 47.6
245.0 95.0 14.03
200.0 53.0 26.41
150.67 82.0 39.2
111.0 199.69 37.8
118.0 168.0 14.57
113.0 154.33 47.6
224.0 31.19 9.8
112.0 174.35 54.6
154.66 148.0 21.0
154.0 132.0 67.46
178.0 66.13 21.0
40.0 34.88 4.2
140.0 161.0 61.56
134.0 159.0 16.33
99.0 136.0 23.34
62.0 262.67 9.8
121.0 144.74 30.8
225.0 143.0 35.54
150.0 149.28 67.2
144.45 71.0 23.8
99.0 169.29 44.8
106.0 190.0 58.64
183.0 143.0 27.74
151.29 219.0 30.8
171.0 139.6 9.8
227.0 96.0 9.45
210.0 87.0 27.76
136.0 159.0 49.92
80.75 132.0 30.8
185.68 57.0 15.4
107.0 165.86 11.2
103.0 160.81 18.2
236.12 113.0 14.0
213.0 56.0 15.06
164.0 66.0 32.48
104.0 149.0 31.6
211.0 41.0 2.82
250.0 82.0 12.06
61.28 230.0 33.6
187.0 134.0 60.04
108.0 198.0 41.08
99.32 91.0 30.8
74.15 183.0 43.4
102.0 143.61 16.8
83.53 180.0 50.4
141.0 162.0 23.34
28.4 234.0 16.8
131.98 115.0 23.8
223.0 110.66 18.2
186.0 36.62 19.6
170.0 169.0 25.2
82.62 211.0 60.2
240.06 126.0 19.6
103.67 192.0 33.6
216.0 81.0 25.2
137.0 142.0 67.34
73.34 203.0 43.4
117.0 162.0 10.08
82.0 190.0 33.6
136.7 212.0 32.2
105.0 158.22 50.4
133.71 150.0 64.4
210.0 139.33 16.8
63.0 221.0 35.42
94.0 65.0 14.8
145.0 101.48 33.6
180.0 61.0 34.35
228.0 88.0 12.12
251.0 86.0 12.13
146.0 128.0 3.43
151.78 151.0 23.8
69.74 184.0 29.4
102.0 188.5 68.6
194.0 137.0 32.06
110.89 132.0 22.4
213.0 55.0 14.53
205.0 191.5 15.4
206.0 133.0 41.3
119.0 171.0 17.73
89.66 200.0 54.6
148.0 119.27 49.0
132.08 80.0 30.8
17.0 221.0 10.5
84.0 188.0 30.62
134.0 163.74 22.4
73.0 209.67 58.8
172.0 153.41 25.2
101.0 169.0 17.5
62.0 233.0 31.37
145.0 115.83 40.6
62.0 264.17 4.2
142.0 124.0 4.29
64.0 206.0 33.6
244.0 112.0 24.92
65.31 218.0 36.4
214.0 137.12 18.2
230.76 74.0 14.0
161.0 109.18 47.6
218.63 42.0 9.8
105.0 173.0 31.68
108.0 153.17 58.8
145.0 64.0 38.68
144.0 70.68 26.6
101.88 199.0 53.2
135.67 140.0 16.8
60.0 231.13 26.6
183.0 141.75 11.2
232.0 63.0 2.5
146.0 135.0 67.53
153.0 151.0 7.4
167.48 138.0 33.6
114.3 152.0 51.8
97.0 71.0 15.14
148.0 173.0 31.31
194.0 51.0 21.98
202.0 132.44 33.6
164.0 56.0 35.7
63.0 212.0 33.98
52.0 247.0 22.23
208.7 50.0 18.2
210.0 45.86 18.2
148.0 146.72 12.6
229.66 67.0 14.0
168.0 56.0 27.86
141.0 122.24 47.6
112.0 191.0 39.84
144.0 103.2 15.4
225.0 96.0 18.73
135.0 109.0 14.84
217.0 127.53 14.0
181.0 70.0 21.05
172.17 60.0 32.2
54.0 214.0 44.77
142.0 175.36 25.2
125.0 173.3 18.2
149.0 118.12 57.4
155.88 116.0 35.0
72.0 248.67 21.0
72.0 205.0 42.44
28.0 228.0 16.8
185.26 55.0 14.0
201.0 46.67 14.0
19.0 213.0 3.72
217.0 126.0 13.18
145.31 125.0 57.4
156.2 183.0 25.2
163.0 71.38 22.4
235.0 94.6 32.2
238.34 84.0 5.6
140.72 160.0 29.4
178.0 43.0 20.69
87.0 177.41 39.2
95.63 171.0 58.8
98.4 91.0 28.0
170.0 43.0 9.05
89.0 215.6 50.4
155.0 132.0 67.23
191.0 134.28 25.2
142.0 97.59 37.8
114.0 169.0 55.53
94.0 173.0 46.62
109.0 153.38 19.6
117.51 193.0 18.2
143.32 122.0 42.0
103.0 162.0 18.3
107.0 141.56 36.4
240.33 94.0 25.2
233.0 44.0 11.02
127.0 188.0 44.57
132.0 193.88 22.4
209.0 165.05 25.2
76.0 190.13 43.4
120.0 146.65 46.2
226.0 113.0 31.98
81.0 199.0 46.7
166.27 124.0 44.8
119.5 187.0 54.6
165.0 116.0 46.36
213.0 151.22 35.0
167.0 49.28 18.2
146.67 75.0 26.6
77.0 192.39 37.8
137.0 113.0 10.98
132.36 76.0 25.2
60.0 226.07 22.4
95.0 211.08 53.2
93.0 183.0 59.79
135.0 179.0 53.6
74.0 206.0 40.83
118.7 150.0 22.4
131.0 79.0 23.14
226.33 127.0 14.0
146.34 120.0 43.4
158.0 143.0 21.47
52.0 232.0 27.02
53.0 240.0 33.44
98.0 138.0 26.95
181.0 51.0 13.0
54.88 202.0 37.8
181.75 51.0 32.2
140.0 145.0 8.44
143.0 122.65 58.8
130.79 102.0 39.2
234.66 68.0 12.6
145.47 164.0 43.4
53.0 252.81 16.8
208.0 113.0 23.72
163.0 152.64 28.0
150.0 135.0 38.24
242.88 112.0 25.2
192.0 65.82 26.6
109.67 154.0 49.0
125.0 175.66 21.0
178.0 58.0 33.19
155.0 124.0 67.45
129.0 174.0 66.29
118.0 132.33 36.4
228.17 78.0 22.4
212.56 106.0 18.2
80.17 140.0 30.8
158.0 67.0 20.08
188.68 145.0 21.0
176.0 51.0 10.76
216.0 117.0 35.0
134.11 97.0 36.4
169.0 66.0 13.68
153.0 112.76 44.8
41.0 218.0 29.52
119.74 137.0 23.8
231.0 103.32 25.2
205.9 112.0 29.4
204.0 57.67 28.0
233.52 138.0 29.4
128.0 182.62 60.2
78.0 187.23 51.8
145.0 128.0 13.53
228.0 119.0 34.24
161.0 137.85 65.8
70.8 220.0 54.6
146.8 219.0 29.4
54.42 221.0 46.2
146.0 161.0 53.38
141.0 211.0 27.3
49.91 28.0 7.0
172.5 63.0 32.2
157.0 162.9 36.4
138.0 130.0 9.3
234.35 116.0 25.2
123.0 141.0 63.62
114.0 190.47 37.8
97.0 202.12 49.0
155.0 182.06 26.6
188.0 155.0 33.83
149.66 96.0 35.0
161.0 143.56 61.6
199.1 135.0 39.2
151.0 139.35 61.6
133.0 129.0 34.75
105.0 174.0 60.03
188.0 148.69 22.4
102.22 176.0 23.8
136.38 137.0 67.2
213.3 144.0 16.8
132.19 132.0 43.4
135.0 183.13 29.4
155.0 61.0 29.08
116.94 163.0 21.0
99.96 149.0 36.4
36.43 232.0 21.0
144.19 121.0 57.4
103.0 174.35 33.6
208.0 58.0 18.33
160.0 122.66 35.0
245.0 66.2 5.6
131.34 165.0 47.6
74.0 196.32 58.8
137.98 183.0 35.0
167.14 179.0 36.4
121.0 180.0 58.45
152.65 100.0 29.4
70.54 209.0 63.0
83.0 202.0 45.06
158.0 139.16 4.2
127.0 184.59 18.2
124.76 128.0 29.4
87.0 199.0 37.54
143.0 87.0 37.33
143.69 150.0 19.6
157.0 224.0 25.27
132.65 160.0 32.2
152.0 66.5 36.4
170.0 70.73 16.8
58.0 231.89 29.4
214.0 154.0 32.85
153.0 173.0 24.03
239.0 71.0 2.44
178.0 184.8 30.8
139.0 194.0 21.7
125.0 144.0 18.43
177.0 45.0 12.63
103.0 173.83 65.8
91.0 193.0 43.86
87.0 83.0 11.49
143.09 109.0 25.2
60.0 203.0 48.14
149.67 143.0 35.0
150.0 151.0 19.24
151.0 119.0 34.77
247.33 63.0 5.6
135.8 125.0 56.0
119.0 181.0 55.07
138.0 85.0 40.25
227.66 92.0 9.8
44.89 245.0 15.4
82.0 188.35 57.4
211.5 109.0 25.2
226.0 135.0 20.09
160.0 158.97 35.0
166.0 124.77 12.6
145.0 121.0 27.81
123.0 152.0 69.51
69.0 232.0 36.57
218.0 104.0 35.28
204.0 28.0 3.75
111.35 188.0 22.4
149.64 107.0 15.4
18.0 216.0 8.2
167.89 128.0 43.4
210.14 144.0 19.6
179.0 142.35 18.2
131.0 176.0 48.26
213.0 68.72 19.6
121.17 161.0 9.8
139.0 128.0 28.95
77.0 191.32 63.0
155.0 74.33 28.0
122.0 179.67 49.0
234.69 125.0 21.0
67.5 251.0 21.0
22.0 234.0 11.2
145.0 136.0 33.13
228.0 99.0 30.98
73.68 209.0 40.6
162.0 47.79 18.2
47.76 29.0 7.0
132.0 176.4 42.0
199.0 192.92 8.4
224.0 105.0 31.28
123.0 135.07 25.2
161.0 156.0 19.12
85.57 214.0 37.8
149.0 72.34 35.0
133.0 195.38 23.8
175.0 117.74 54.6
232.0 42.0 10.78
229.0 139.56 35.0
140.0 151.0 56.48
214.0 98.09 35.0
209.0 50.0 17.69
12.44 62.0 46.2
97.0 169.0 14.85
220.0 101.0 32.4
150.0 145.0 11.68
106.68 142.0 40.6
103.0 157.0 46.67
182.0 151.0 20.03
54.0 231.0 34.51
251.0 89.0 12.88
143.0 128.0 36.88
144.0 95.0 35.96
137.0 172.29 18.2
225.18 82.0 12.6
106.23 126.0 28.0
154.0 120.41 57.4
190.0 26.0 11.9
244.0 113.0 24.73
111.0 187.0 18.36
242.0 71.0 13.4
162.0 126.74 58.8
212.3 139.0 42.0
123.0 129.49 28.0
138.0 172.05 29.4
27.86 216.0 8.4
168.0 140.0 3.27
122.0 143.87 5.6
93.0 189.0 45.24
136.0 198.2 22.4
108.0 162.31 21.0
56.0 223.0 36.84
186.0 53.38 18.2
142.0 168.52 57.4
151.3 136.0 35.0
153.0 142.55 14.0
137.33 167.0 25.2
110.0 200.48 36.4
125.0 131.38 46.2
168.69 146.0 35.0
126.0 137.0 48.44
247.0 100.0 14.38
209.0 146.0 21.45
213.0 114.75 25.2
125.0 148.0 52.71
193.0 42.0 22.62
213.0 146.0 33.42
163.0 44.0 12.41
143.0 152.48 68.6
137.02 89.0 32.2
22.0 228.0 14.4
145.68 158.0 46.2
121.09 178.0 54.6
180.36 147.0 28.0
40.0 219.0 18.44
176.95 71.0 30.8
116.0 140.0 18.89
122.43 182.0 53.2
157.0 121.0 47.16
36.5 213.0 12.6
228.0 66.0 5.33
110.14 148.0 44.8
106.29 175.0 60.2
211.71 137.0 36.4
195.0 50.0 6.44
145.0 122.0 54.18
219.89 100.0 12.6
133.0 96.0 38.33
256.0 83.0 12.6
49.0 220.0 19.24
27.0 228.0 10.56
157.0 118.0 15.26
137.0 162.65 54.6
93.0 181.0 62.08
129.03 184.0 53.2
238.0 79.0 2.54
130.74 126.0 14.0
168.9 125.0 14.0
52.0 219.28 30.8
113.0 187.0 21.47
239.0 96.0 7.19
216.0 115.0 19.28
219.0 131.0 43.21
146.03 102.0 29.4
221.99 62.0 14.0
160.0 118.26 26.6
154.0 162.32 40.6
194.0 144.68 35.0
227.0 121.0 15.77
140.0 126.11 23.8
184.0 45.0 5.01
111.0 162.0 70.32
59.0 96.67 8.4
133.67 146.0 53.2
121.67 181.0 42.0
212.0 136.0 44.53
215.17 160.0 26.6
239.6 124.0 28.0
79.0 196.0 63.97
215.0 130.0 27.16
227.0 64.0 16.69
144.72 161.0 40.6
130.0 158.0 11.2
118.15 181.0 60.2
189.0 63.13 26.6
122.0 147.0 45.26
119.0 158.0 62.53
122.0 183.0 28.42
96.0 168.0 27.07
189.0 58.0 18.32
170.69 134.0 53.2
179.0 165.22 33.6
235.0 73.0 19.6
31.0 216.75 11.2
22.21 205.0 14.0
215.3 137.0 16.8
158.0 56.0 15.76
167.24 182.0 36.4
143.0 168.44 18.2
226.08 90.0 26.6
132.0 139.33 22.4
117.0 140.69 22.4
113.0 158.0 60.15
135.0 111.71 22.4
79.0 200.0 66.74
218.0 133.68 16.8
249.0 78.0 4.28
202.0 164.93 22.4
119.0 158.0 6.76
142.0 105.62 29.4
123.78 180.0 33.6
174.0 180.0 30.35
214.0 162.62 14.0
180.0 49.26 26.6
183.14 152.0 36.4
87.62 213.0 43.4
226.07 131.0 40.6
146.0 75.31 29.4
183.35 148.0 29.4
147.0 111.0 10.66
142.33 128.0 35.0
123.0 181.7 25.2
146.0 134.34 25.2
116.0 154.0 27.67
87.0 173.83 39.2
156.0 61.0 29.04
137.0 146.65 25.2
85.0 180.0 32.55
186.0 33.0 13.9
45.69 209.0 29.4
58.16 207.0 49.0
67.0 212.0 54.15
229.0 132.65 21.0
54.0 211.0 41.64
67.31 218.0 47.6
135.0 178.58 33.6
144.0 131.0 30.4
22.0 234.0 14.0
220.79 90.0 18.2
85.0 199.0 32.2
75.3 187.0 46.2
108.0 187.0 64.05
151.0 151.65 37.8
80.0 207.0 40.12
220.0 63.0 16.49
150.26 101.0 33.6
138.0 88.0 41.18
128.0 139.31 43.4
44.21 219.0 35.0
143.0 184.0 15.14
134.66 140.0 54.6
110.35 163.0 50.4
70.0 221.64 43.4
148.0 161.0 57.4
228.0 116.0 8.52
208.57 145.0 21.0
58.0 250.1 21.0
114.0 151.0 51.33
149.0 131.66 44.8
41.0 244.69 18.2
66.0 229.5 37.8
88.0 216.0 39.32
160.54 119.0 33.6
225.0 92.24 25.2
151.3 153.0 30.8
126.0 150.0 69.56
182.0 56.33 28.0
166.0 64.28 12.6
95.0 206.0 59.71
117.26 143.0 43.4
103.0 197.0 60.15
206.91 116.0 28.0
107.0 102.0 28.75
234.0 113.0 27.52
112.0 140.47 42.0
152.66 157.0 21.0
253.75 93.0 16.8
200.0 164.0 34.03
97.0 194.0 59.7
112.65 187.0 44.8
147.74 120.0 14.0
86.0 199.71 32.2
59.55 208.0 51.8
101.0 97.07 29.4
138.36 121.0 14.0
106.8 170.0 63.0
173.7 38.0 14.0
141.0 144.0 33.97
105.0 208.24 40.6
95.0 157.35 32.2
193.0 134.0 24.01
146.43 162.0 46.2
93.46 159.0 33.6
178.0 40.0 6.61
57.62 103.0 14.0
109.0 166.0 49.42
181.62 146.0 29.4
101.38 136.0 25.2
146.0 116.0 17.45
42.0 212.0 26.06
119.0 182.76 15.4
117.0 159.0 62.88
149.91 157.0 61.6
137.0 83.0 28.43
87.31 195.0 51.8
142.0 132.0 3.45
213.0 79.0 27.79
161.0 71.0 14.6
41.0 243.0 19.88
113.0 185.83 54.6
210.0 76.0 21.47
137.0 72.09 29.4
148.0 121.0 27.39
160.22 146.0 60.2
177.9 151.0 33.6
147.33 82.0 22.4
112.0 161.0 24.29
125.27 132.0 33.6
159.0 129.0 19.12
95.0 209.81 39.2
71.0 206.69 60.2
197.5 141.0 39.2
198.0 142.0 21.06
147.0 101.95 18.2
225.32 52.0 15.4
178.0 170.19 30.8
226.0 123.0 27.51
132.0 183.57 47.6
245.61 108.0 16.8
147.0 159.83 50.4
108.29 206.0 36.4
65.68 226.0 28.0
105.0 157.78 22.4
105.0 147.95 23.8
223.83 90.0 21.0
227.66 108.0 29.4
121.0 150.25 37.8
134.48 166.0 9.8
150.0 132.65 11.2
137.02 70.0 19.6
60.0 223.0 44.95
99.0 163.0 36.88
225.56 94.0 25.2
233.0 98.73 5.6
67.0 238.0 30.93
230.0 125.35 36.4
141.0 160.68 37.8
173.38 157.0 23.8
170.0 41.5 12.6
207.33 112.0 25.2
149.0 65.0 28.97
159.0 141.0 36.91
211.0 40.4 18.2
123.0 183.0 9.1
62.26 206.0 47.6
208.93 122.0 37.8
224.0 71.33 23.8
22.75 210.0 8.4
196.0 191.12 22.4
105.0 158.5 44.8
146.65 156.0 36.4
148.0 169.0 19.2
212.0 117.0 17.18
106.0 170.94 64.4
126.0 180.65 22.4
144.98 142.0 18.2
163.78 200.0 26.6
59.0 95.0 10.65
109.19 142.0 25.2
53.5 221.0 26.6
173.0 52.0 22.0
113.0 161.0 28.47
148.0 53.0 23.74
88.0 182.0 55.53
153.0 131.0 22.53
194.0 47.0 23.45
131.0 172.67 39.2
180.0 59.0 14.09
150.96 85.0 36.4
215.0 122.0 28.46
136.0 134.35 35.0
102.0 146.0 20.53
115.0 141.64 23.8
123.0 161.0 66.5
126.0 172.0 8.21
171.0 44.0 8.51
177.5 113.0 25.2
146.0 93.0 41.54
129.91 122.0 15.4
49.0 216.09 28.0
117.47 149.0 7.0
96.0 206.0 44.23
166.0 54.0 13.65
222.14 79.0 22.4
142.0 176.04 53.2
139.33 131.0 37.8
145.0 69.0 14.35
141.65 152.0 70.0
129.35 173.0 36.4
138.06 93.0 36.4
146.0 127.0 18.2
219.0 145.06 16.8
59.43 206.0 40.6
124.5 169.0 70.0
112.95 164.0 14.0
46.1 214.0 19.6
113.26 165.0 54.6
149.0 141.0 69.88
211.0 122.0 41.69
171.0 122.0 23.92
181.4 46.0 29.4
216.0 149.0 27.41
123.31 141.0 36.4
210.0 104.21 28.0
153.0 59.0 10.65
132.0 101.0 34.18
76.29 251.0 21.0
226.51 71.0 14.0
195.0 146.0 34.61
190.0 189.2 25.2
53.0 229.0 33.1
159.0 60.12 30.8
141.0 87.0 27.09
38.0 222.0 26.44
156.0 154.33 23.8
120.33 178.0 60.2
70.0 229.65 43.4
246.0 107.0 20.53
150.67 67.0 32.2
74.0 184.0 35.91
120.0 148.0 3.27
58.0 235.0 21.23
153.0 144.0 19.27
63.0 255.0 21.54
149.0 136.0 38.2
159.0 58.0 29.4
112.0 159.0 26.93
148.0 166.91 14.0
163.5 142.0 23.8
167.0 137.68 49.0
166.0 43.0 10.41
99.0 152.0 29.92
147.75 89.0 30.8
135.59 177.0 46.2
148.0 127.75 65.8
125.8 184.0 56.0
140.0 161.29 14.0
249.0 88.0 19.21
122.0 145.69 22.4
146.65 148.0 19.6
208.0 27.5 8.4
150.39 147.0 29.4
145.0 68.0 32.98
245.29 71.0 9.8
222.0 117.0 37.54
64.35 220.0 49.0
137.0 120.83 29.4
110.14 169.0 54.6
138.0 172.0 48.62
137.43 175.0 50.4
147.0 118.0 16.22
125.0 139.34 32.2
131.75 94.0 33.6
21.8 199.0 8.4
130.0 142.31 67.2
215.0 97.0 19.33
238.0 109.0 10.35
102.0 171.65 30.8
214.0 30.0 11.87
246.0 72.0 9.8
153.51 121.0 8.4
73.0 187.12 40.6
82.0 201.0 65.47
236.0 102.0 12.13
145.0 157.0 37.31
92.0 68.86 4.2
66.0 212.8 30.8
164.0 141.67 54.6
176.0 65.74 14.0
134.0 125.3 33.6
161.0 63.34 36.4
217.0 39.0 2.89
178.0 155.0 32.65
118.0 133.59 26.6
170.0 69.04 26.6
66.0 224.82 36.4
105.89 123.0 26.6
182.0 167.0 32.47
209.0 120.0 25.78
117.81 194.0 18.2
47.07 210.0 33.6
192.0 148.66 26.6
153.0 64.22 14.0
111.67 134.0 23.8
212.0 83.33 28.0
109.69 154.0 37.8
70.0 222.38 40.6
93.0 175.3 53.2
150.0 161.26 18.2
228.0 51.84 14.0
123.0 185.0 19.52
165.0 106.0 20.77
115.0 173.32 19.6
229.0 138.39 19.6
143.15 117.0 44.8
251.38 79.0 7.0
238.72 101.0 26.6
173.0 64.0 29.05
227.0 72.5 21.0
163.0 126.0 68.84
50.85 249.0 21.0
24.67 232.0 14.0
221.71 134.0 16.8
51.0 245.82 22.4
101.0 167.5 18.2
146.0 135.0 70.1
160.85 158.0 37.8
78.0 206.0 64.67
229.34 93.0 19.6
165.0 53.0 8.52
41.0 245.17 16.8
141.0 104.0 32.01
136.0 151.34 49.0
166.42 179.0 35.0
118.67 177.0 12.6
170.54 67.0 21.0
113.0 181.75 36.4
134.0 155.26 12.6
77.0 220.0 52.78
160.0 154.0 37.4
237.0 92.0 11.47
156.0 142.0 2.7
153.0 117.71 33.6
224.44 90.0 11.2
237.29 92.0 29.4
180.0 57.0 7.23
169.33 138.0 46.2
101.18 170.0 63.0
166.0 62.0 13.25
176.0 151.0 15.82
101.71 129.0 29.4
147.0 99.0 34.09
73.0 258.6 14.0
126.0 148.35 63.0
250.0 77.0 4.51
136.0 149.33 54.6
114.83 197.0 43.4
203.0 137.0 25.68
195.0 136.12 30.8
113.07 167.0 58.8
70.0 263.0 11.98
136.0 161.0 69.37
191.0 208.75 12.6
157.0 115.0 51.1
218.0 41.76 4.2
106.0 193.0 37.29
224.0 56.0 15.31
152.36 115.0 47.6
51.0 214.19 26.6
153.0 149.67 32.2
228.0 93.26 30.8
106.3 147.0 49.0
47.8 215.0 39.2
74.0 196.62 30.8
84.93 212.0 39.2
169.0 49.5 8.4
152.0 148.0 39.59
136.0 178.0 24.31
202.0 165.0 32.84
109.34 162.0 12.6
117.0 149.0 65.39
147.17 90.0 36.4
166.0 48.0 13.07
142.65 139.0 14.0
53.34 215.0 42.0
173.8 147.0 21.0
217.0 107.0 36.26
107.24 156.0 40.6
135.66 155.0 15.4
68.0 221.0 50.87
128.32 149.0 64.4
105.0 152.0 54.96
144.0 216.81 29.4
218.0 121.0 38.46
210.0 60.0 19.5
96.0 169.07 47.6
148.0 144.0 65.4
162.0 144.0 7.25
129.0 184.48 51.8
132.0 114.0 28.88
174.0 118.33 22.4
105.0 194.42 61.6
244.67 87.0 22.4
153.0 119.0 38.73
68.0 198.0 46.66
21.33 204.0 8.4
92.0 200.93 40.6
184.0 46.35 22.4
231.0 136.0 34.66
225.0 139.0 31.16
137.46 169.0 42.0
148.0 155.0 11.86
99.0 140.67 22.4
194.0 131.61 29.4
100.0 170.68 29.4
227.0 113.0 24.66
142.8 127.0 2.8
77.81 215.0 44.8
186.77 142.0 33.6
154.46 153.0 61.6
106.0 146.0 24.77
90.0 182.0 63.65
235.0 87.0 23.38
146.0 171.0 38.91
58.21 211.0 43.4
88.0 180.0 29.96
230.03 49.0 12.6
203.0 52.0 20.04
129.74 189.0 37.8
131.65 170.0 54.6
209.0 29.92 5.6
217.34 97.0 12.6
112.0 181.33 65.8
136.28 68.0 23.8
84.0 204.0 40.04
157.0 72.96 32.2
104.0 95.0 31.8
143.0 67.0 15.83
134.31 130.0 51.8
116.0 191.0 23.21
131.0 186.78 32.2
51.34 223.0 35.0
227.57 80.0 15.4
149.0 73.0 44.27
165.09 125.0 14.0
88.0 211.0 58.26
149.0 55.17 21.0
60.0 212.0 30.88
133.0 132.0 35.65
216.65 129.0 19.6
195.0 135.0 37.25
168.67 68.0 16.8
223.0 125.0 39.43
170.0 62.0 36.19
138.0 126.0 51.33
37.75 243.0 9.8
42.0 219.0 21.46
242.0 63.0 13.75
219.78 81.0 18.2
97.07 131.0 28.0
217.0 95.0 13.8
108.0 154.0 47.51
169.0 185.0 35.2
233.0 117.0 15.81
229.68 126.0 14.0
136.0 174.17 42.0
225.0 107.0 12.96
224.0 106.0 16.33
213.0 149.24 23.8
81.0 148.0 22.75
68.7 215.0 36.4
183.56 138.0 33.6
87.0 214.0 55.74
208.0 102.0 26.08
142.0 158.66 33.6
112.69 145.0 22.4
230.0 95.0 8.06
226.0 98.0 13.01
91.0 171.78 19.6
130.67 182.0 33.6
219.0 109.0 36.72
227.0 142.71 23.8
183.0 62.0 27.02
157.0 67.0 30.39
36.0 238.2 18.2
139.3 131.0 15.4
132.89 78.0 32.2
109.8 151.0 8.4
102.0 176.0 29.82
128.35 138.0 22.4
150.0 142.34 50.4
173.0 129.0 51.01
154.0 158.0 51.8
140.65 129.0 23.8
95.66 186.0 60.2
189.0 34.0 15.68
125.0 206.0 24.97
243.72 91.0 11.2
79.64 206.0 44.8
200.0 49.0 13.07
177.38 66.0 21.0
117.3 182.0 50.4
124.68 152.0 30.8
104.63 171.0 32.2
160.0 55.0 34.64
230.25 51.0 18.2
168.0 73.27 23.8
113.0 151.0 61.18
137.0 138.0 5.77
101.0 149.31 47.6
219.0 142.61 33.6
141.0 153.0 20.06
117.0 163.0 63.5
165.0 96.2 50.4
98.0 163.22 46.2
150.83 170.0 32.2
86.0 191.34 43.4
134.0 131.83 32.2
134.0 161.0 67.51
137.0 152.0 42.92
142.0 98.0 19.46
151.0 113.63 42.0
91.0 185.0 67.61
110.0 161.0 13.03
206.4 106.0 25.2
110.56 140.0 49.0
175.0 147.0 11.63
103.96 110.0 35.0
42.0 212.46 28.0
227.0 135.0 30.39
162.61 155.0 32.2
53.0 232.0 40.4
139.0 111.0 24.11
35.78 243.0 21.0
233.0 74.0 5.23
173.33 46.0 23.8
111.52 168.0 51.8
142.38 57.0 25.2
127.0 150.0 69.78
183.0 41.0 20.65
156.71 111.0 18.2
126.0 153.0 63.91
135.7 111.0 14.0
82.37 199.0 44.8
74.64 216.0 50.4
57.0 239.0 19.18
187.0 53.4 18.2
177.71 164.0 33.6
188.0 51.0 27.86
157.0 197.75 26.6
99.0 153.8 42.0
219.0 129.68 29.4
178.77 181.0 29.4
11.41 62.0 67.2
227.66 128.0 32.2
213.0 36.0 15.35
129.0 129.5 42.0
108.0 192.53 35.0
212.0 144.0 19.47
171.0 68.0 35.39
164.0 112.0 45.07
84.25 178.0 56.0
120.0 140.56 16.8
113.0 189.0 36.06
150.0 149.0 13.07
162.48 152.0 37.8
160.0 55.88 35.0
79.0 197.89 44.8
145.0 147.0 7.46
170.0 45.21 22.4
80.0 142.43 32.2
189.0 55.51 12.6
116.0 140.33 28.0
141.0 125.24 26.6
142.34 152.0 18.2
150.0 152.0 19.13
151.0 165.25 28.0
104.0 186.0 27.53
112.0 149.29 32.2
118.0 152.0 41.07
116.0 155.32 5.6
152.0 54.0 13.56
238.29 108.0 29.4
100.76 150.0 15.4
95.88 113.0 25.2
161.93 152.0 25.2
96.59 143.0 21.0
235.0 99.67 15.4
117.0 182.35 36.4
113.0 160.0 8.4
84.06 185.0 44.8
136.0 124.0 22.73
108.1 203.0 49.0
156.0 164.21 36.4
98.4 85.0 21.0
154.0 135.0 67.31
105.0 186.0 36.83
147.65 122.0 40.6
159.62 144.0 12.6
42.78 232.0 21.0
42.75 225.0 36.4
131.0 189.0 12.95
214.87 67.0 12.6
165.0 133.0 30.75
221.0 132.0 31.84
247.83 70.0 5.6
67.35 223.0 30.8
65.0 208.0 59.09
56.06 243.0 29.4
184.0 151.0 33.99
54.29 201.0 25.2
192.0 150.61 37.8
127.0 134.07 16.8
30.11 231.0 18.2
124.0 160.0 63.96
140.0 84.0 25.71
94.0 70.74 9.8
194.0 208.0 9.26
130.33 137.0 43.4
104.0 191.0 36.44
210.0 105.0 18.8
141.0 85.0 45.72
197.0 27.38 14.0
95.0 180.0 31.12
218.0 120.66 21.0
154.0 69.0 32.02
224.0 107.29 35.0
161.0 45.0 19.8
109.6 172.0 60.2
107.0 136.0 21.7
142.0 147.0 65.38
116.79 157.0 7.0
143.0 83.0 41.77
115.0 148.0 55.14
125.0 146.0 19.98
135.3 111.0 25.2
127.6 132.0 36.4
123.0 152.0 38.74
226.0 97.0 28.35
57.74 216.0 26.6
174.0 184.0 37.22
228.0 117.67 36.4
108.41 151.0 61.6
236.69 119.0 23.8
101.62 192.0 26.6
217.0 95.0 27.87
256.18 87.0 14.0
77.0 190.22 61.6
151.0 146.0 64.06
181.35 59.0 19.6
216.0 34.0 14.33
143.0 101.0 34.08
137.0 157.67 9.8
131.0 167.0 10.76
93.61 157.0 37.8
157.0 125.65 32.2
142.0 138.41 8.4
158.0 51.0 20.22
141.0 127.0 19.13
28.5 220.0 11.2
208.0 117.0 36.49
87.0 195.0 48.53
48.0 227.0 26.62
149.78 170.0 9.8
142.76 132.0 8.4
233.0 114.33 29.4
198.0 136.0 34.4
199.17 48.0 12.6
138.23 70.0 16.8
155.0 120.0 64.52
233.0 44.0 14.52
233.0 114.0 9.09
82.0 206.0 45.08
81.75 217.0 37.8
83.0 187.53 32.2
146.74 132.0 5.6
77.0 205.0 31.0
190.0 58.0 18.5
107.0 150.0 18.38
205.54 137.0 39.2
143.0 125.0 15.27
156.0 174.33 22.4
134.8 155.0 9.8
159.0 52.73 23.8
76.0 212.0 42.42
105.0 143.49 36.4
220.0 98.0 19.03
129.53 121.0 16.8
155.0 139.65 54.6
121.7 169.0 23.8
148.0 131.0 9.36
138.0 78.0 19.49
172.0 181.0 33.6
109.0 184.0 24.27
21.43 209.0 7.0
231.0 138.0 21.7
85.0 209.0 61.4
204.5 165.0 29.4
53.83 238.0 19.6
118.0 181.0 60.09
72.0 257.0 18.4
173.0 170.19 32.2
151.0 135.0 19.2
215.06 120.0 22.4
130.0 179.96 21.0
138.34 158.0 63.0
53.0 217.47 26.6
158.0 171.92 15.4
34.0 217.0 24.4
124.27 141.0 42.0
80.0 209.0 37.38
222.0 83.22 18.2
94.88 170.0 40.6
102.68 190.0 32.2
152.0 152.0 29.76
192.0 135.0 36.13
104.0 191.79 30.8
89.0 187.0 38.01
128.0 207.0 28.0
224.69 140.0 22.4
183.47 105.0 19.6
132.0 152.67 43.4
119.34 175.0 49.0
111.0 167.66 43.4
197.09 194.0 9.8
106.4 208.0 37.8
151.69 117.0 40.6
208.0 141.65 22.4
133.0 83.0 26.37
100.0 184.0 61.17
125.66 150.0 5.6
212.0 149.85 30.8
253.0 93.0 17.64
218.0 96.0 21.43
156.0 118.0 34.49
116.0 180.0 26.77
147.94 75.0 21.0
139.0 94.0 43.83
216.0 77.68 15.4
199.0 194.0 7.22
204.0 44.0 14.0
133.0 76.0 18.96
178.0 45.0 22.34
194.33 154.0 30.8
91.0 183.33 39.2
140.0 155.0 21.47
100.17 118.0 25.2
121.0 158.0 65.3
138.0 177.63 15.4
151.0 119.0 15.05
193.0 155.0 35.35
228.64 134.0 22.4
135.0 75.14 30.8
176.0 71.12 22.4
225.0 101.71 28.0
128.0 144.35 22.4
207.0 28.0 3.61
215.13 124.0 19.6
232.0 67.0 11.71
69.44 218.0 51.8
227.0 125.0 17.26
144.0 68.66 25.2
142.68 173.0 50.4
119.0 185.5 43.4
123.08 130.0 26.6
160.0 66.0 30.41
117.0 182.0 22.58
191.0 207.25 12.6
241.0 104.0 14.12
197.0 148.03 37.8
129.0 185.49 49.0
156.0 136.35 36.4
191.0 212.5 11.2
138.0 145.0 65.4
52.0 215.0 34.1
145.0 108.0 27.26
224.0 106.0 18.7
105.0 153.17 29.4
170.0 64.0 9.13
257.0 82.0 9.1
154.0 64.44 35.0
106.0 121.0 31.0
216.63 97.0 35.0
67.0 215.0 51.44
162.0 121.22 56.0
173.5 171.0 29.4
236.0 101.0 19.11
194.7 136.0 25.2
140.0 123.0 44.31
138.0 146.0 35.46
118.16 165.0 18.2
167.0 119.2 68.6
108.14 132.0 19.6
65.0 253.93 15.4
180.0 153.27 16.8
71.9 128.0 35.0
236.67 81.0 23.8
94.0 161.79 43.4
137.0 101.0 33.17
187.0 184.82 28.0
125.0 150.33 54.6
164.0 122.0 69.13
109.0 172.0 26.95
98.0 164.0 17.72
212.0 136.0 28.44
73.0 219.18 54.6
84.0 154.0 24.26
137.0 165.0 15.9
119.0 181.67 33.6
100.43 160.0 29.4
106.21 117.0 25.2
145.0 129.0 15.2
148.64 134.0 30.8
135.0 130.33 54.6
166.0 64.76 16.8
158.0 140.0 34.03
123.0 150.0 68.4
54.0 229.0 43.17
84.0 207.69 60.2
30.0 230.5 18.2
167.0 99.0 48.4
195.34 142.0 32.2
123.0 186.12 11.2
172.0 179.0 31.58
114.0 188.65 63.0
121.0 160.0 70.07
143.33 148.0 26.6
222.0 113.0 33.43
237.0 105.56 29.4
126.0 137.31 43.4
147.27 73.0 25.2
212.0 50.29 18.2
143.0 123.0 59.37
67.0 220.0 34.03
78.25 197.0 43.4
204.34 134.0 36.4
130.0 113.67 28.0
114.0 143.0 54.71
125.0 171.0 28.46
106.0 180.91 14.0
252.0 64.0 5.83
233.0 53.0 5.8
86.0 221.48 44.8
172.25 207.0 25.2
240.0 59.0 3.5
106.0 162.19 58.8
151.7 131.0 36.4
146.0 152.0 20.08
136.0 182.6 21.0
119.0 187.0 48.07
67.52 246.0 23.8
127.0 144.0 8.14
124.0 166.0 69.92
59.0 222.0 23.58
113.34 156.0 8.4
245.0 84.0 16.8
113.0 148.0 46.96
131.87 94.0 32.2
115.76 180.0 40.6
190.0 32.0 12.41
135.0 91.0 28.66
18.0 207.0 14.14
172.0 66.65 28.0
12.45 62.0 49.0
100.06 117.0 26.6
68.0 209.0 61.08
66.0 219.0 51.18
124.0 188.0 31.0
139.0 125.0 39.64
54.0 216.52 40.6
152.36 169.0 12.6
219.0 137.7 28.0
120.0 199.0 27.09
174.0 46.0 28.28
191.0 32.0 17.27
244.0 69.0 9.49
250.0 82.0 15.87
112.0 157.29 39.2
115.0 188.0 47.26
197.0 154.56 35.0
124.32 140.0 36.4
136.76 128.0 35.0
201.83 59.0 25.2
93.0 187.0 44.33
128.0 163.38 70.0
160.2 129.0 23.8
167.0 62.33 14.0
224.1 96.0 22.4
212.0 111.0 35.58
114.47 145.0 9.8
55.0 229.0 41.77
213.85 147.0 40.6
105.0 197.0 47.11
163.42 148.0 36.4
108.0 127.0 21.91
111.0 141.26 26.6
178.0 60.0 26.18
31.0 230.0 9.98
95.0 204.74 50.4
227.0 99.0 37.01
76.53 137.0 32.2
228.0 138.0 37.23
231.94 114.0 37.8
181.0 141.26 19.6
186.24 185.0 29.4
111.0 143.44 50.4
166.0 137.0 24.04
124.0 143.32 54.6
139.0 138.0 27.02
158.0 137.0 32.68
97.0 215.0 41.7
171.0 37.23 15.4
150.68 155.0 21.0
80.0 182.8 46.2
169.23 144.0 43.4
109.0 106.0 37.21
225.68 141.0 22.4
155.0 93.0 55.52
95.0 169.86 15.4
224.16 87.0 14.0
143.0 210.0 27.6
143.0 122.0 35.84
167.0 48.24 15.4
110.32 155.0 11.2
232.0 123.0 18.7
117.0 177.0 54.86
74.0 211.0 36.92
112.59 136.0 19.6
198.0 48.0 5.7
61.0 252.0 13.16
110.0 145.0 24.76
39.0 246.0 14.0
170.0 139.0 4.56
168.0 167.58 29.4
177.0 41.2 23.8
176.0 60.0 7.93
97.0 183.0 66.07
148.9 167.0 9.8
139.67 119.0 46.2
78.0 185.0 56.57
193.0 155.8 30.8
199.0 138.0 35.81
231.0 118.31 23.8
116.0 191.92 44.8
226.6 95.0 18.2
213.0 123.0 41.97
94.0 71.8 12.6
131.0 140.0 22.86
102.75 149.0 23.8
